# 3D point list with one line of data per point:
#   POINT3D_ID, X, Y, Z, R, G, B, ERROR, TRACK[] as (IMAGE_ID, POINT2D_IDX)
# Number of points: 375, mean track length: 4.5212648743940065
6978 -0.85018440512949578 0.74602443099692861 0.62618505698704452 9 43 26 0.25420459577081761 34 2903 33 2851 32 2587 31 2245
5886 -0.83222304639701883 -0.38101579063501112 0.63843563181478735 20 67 31 0.27746153329834355 3 2079 2 1868 1 1679 36 1488 35 1355 34 1247
5888 -0.82986992898332579 -0.37950208855089324 0.63239423682845453 8 32 22 0.45147627685862535 3 2101 2 1876 1 1709 36 1525 35 1394 34 1286
5890 -0.8306261586649113 -0.36833424187700625 0.70431544266983348 0 80 43 0.15048446430487339 3 2146 2 1884 1 1726 36 1504
6845 -0.94826471484037733 0.40386560378823744 0.75867173982804414 0 210 143 0.21764144751113765 34 1598 33 1336 32 1000
5895 -0.80471893688705531 -0.37062403088688178 0.52945279829922653 27 28 4 0.35057724232104298 3 2232 2 1986 1 1818 36 1779 35 1750
6326 -0.95071634015233064 -0.63383492489028115 -0.16063010767751754 7 26 12 0.34266927606038861 36 293 35 458 34 698
5896 -0.79218663294652347 -0.39052855181391577 0.34720414637097236 3 201 140 0.44017459782306601 3 2181 2 1997 1 1858
6843 -0.83442597867956236 -0.39503277018713534 0.56485938147584625 5 24 8 0.58762449646921899 34 1306 33 1332 32 1350
5898 -0.78327482864787279 -0.37950297076211503 0.15660810247933105 3 207 144 0.19181793820197854 3 2155 2 2047 1 1978
5903 -1.0011221474202341 0.8708212749093357 0.62351357025618348 13 61 20 3.4304952308583356 3 2824 2 2761
5906 -0.97372105105599238 -0.59156002457122903 0.22079445674646642 3 204 144 0.11627383589787831 2 83 1 12 36 72
6797 -0.91798597454310527 -0.54909893481321681 0.13639030020112233 1 37 25 0.29656525108109816 34 762 33 965 32 1163
5911 -0.97195323134341716 -0.55623589906234128 0.4610128440810401 2 38 25 0.78671146858364249 2 234 1 100
6278 -0.96072321031450125 -0.49515265962768179 0.74447095802663943 7 38 25 0.26687028490731474 36 93 35 39 34 16
5912 -0.97163720698287614 -0.55582503025694363 0.44193153215653946 2 42 18 1.4482303137780903 2 226 1 107 36 52 35 59 34 86 33 139 32 212
6795 -0.85705320308619137 -0.40767146807514087 0.62410132998285139 8 213 149 0.30983269397177626 34 944 33 950 32 959 31 1156
5920 -0.9504761950091043 -0.65712187813994105 -0.30444744243044203 0 44 31 0.76058909583960832 2 12 1 182 36 314 35 539
5922 -0.94930598043378955 -0.65328204874312812 -0.27976527201951246 10 51 37 0.59854433682586228 2 21 1 202 36 319 35 531
6604 -0.85889404501444611 -0.53465376030862855 -0.16084228656985763 7 199 149 0.29664111941043669 35 1538 34 1724 33 2037
6749 -0.89717282136460819 -0.4624955624712328 0.52866774337277378 5 209 153 0.40170948968476833 34 583 33 630 32 696
5927 -0.96548848721664993 -0.53387701222102035 0.52773694441756791 1 48 32 0.4034829480822133 2 353 1 245 36 87 35 65 34 74 33 107
6230 -0.86502244674731987 -0.49366015370852806 0.11969722265376867 8 37 27 0.8420110369179975 1 1215 36 1194 35 1280 34 1405 33 1600 32 1740
7617 -0.92024367541768048 -0.21152057679701672 0.80790909674895461 6 31 18 0.34955615371643428 31 375 30 499 29 690 28 823 27 955
5928 -0.94570486922627583 -0.64662208388388742 -0.26536914442401943 22 83 69 0.42812970993388583 2 42 1 248 36 344 35 564
6747 -0.9884317034769815 0.26293212008516709 0.81471903864171735 0 186 117 0.29636159546697866 34 876 33 615 32 386 31 273 30 208 29 191 28 210 27 184
7626 -0.92094852940999272 -0.15619903231309545 0.80060702578579812 14 35 26 0.4173220088353512 31 427 30 547 29 701 28 810
5930 -0.94927532292000161 -0.59809197604964948 0.029263660686694958 12 40 34 0.19526494542755185 2 192 1 276 36 276 35 372
5935 -0.96094013718129179 -0.49528848305435114 0.73871293272389904 10 139 87 0.24702880340880309 2 510 1 324 36 95
5938 -0.92857852822212583 -0.61990521769152962 -0.22978738529708345 3 216 164 0.42804669930787631 2 233 1 402 36 483 35 741 34 1015
6620 -0.86032443160800276 -0.56389636524948272 -0.30454794816635722 4 211 165 0.52840868326423973 35 1598 34 1833 33 2181
6829 -0.91787283397319064 0.1703589495735896 0.75696435409616203 0 28 20 2.1122926590029052 34 1431 33 1192 32 939 31 854 30 826 29 852 28 825 27 810 26 833 25 924 24 1153 23 1397
5943 -0.92728458791091084 -0.58730485353992823 -0.024380284211792724 4 44 27 1.225906841821043 2 368 1 437 36 453 35 605 34 817 33 1101
6310 -0.95200056698767255 -0.57301587479870664 0.1683036660366356 3 29 26 0.12832544716897792 36 244 35 304
7633 -0.97437449989183866 0.62207038036429885 0.75839857574172687 0 26 18 1.4225491709650959 31 813 30 609 29 480 28 344
5944 -0.93906805509134295 -0.51780146044382369 0.47679154399642681 4 38 23 1.4728491570164521 2 544 1 449 36 290 35 246 34 230 33 292
6827 -0.94725094864699122 0.31780490748664214 0.76780817391682765 0 207 130 0.61232304057183651 34 1450 33 1174 32 879 31 723 30 639 29 613
7642 -0.93219575817306899 0.15688507483668007 0.77401902032839198 7 169 98 0.13156745053948857 31 687 30 664 29 691
5952 -0.91345077085305471 -0.59931480746868926 -0.19508467912560859 14 222 160 0.058823011192797814 2 403 1 529
5954 -0.90930529643498637 -0.5919137132705421 -0.17880340233733807 4 43 29 0.49450116237979852 2 450 1 567 36 692
6909 -0.8810288690466842 -0.56004586083494023 -0.16219303740605451 15 161 127 0.16931267155902716 34 1498 33 1808 32 1984
5959 -0.91430343001193515 -0.54534172739494391 0.13062089915497074 3 219 153 0.13705002231726138 2 555 1 583 36 562
6390 -0.86564038821292921 -0.56041744348488509 -0.26356530230776865 9 31 23 0.39501360960385284 36 1240 35 1522 34 1748
5960 -0.92310624290071752 -0.4916086368571741 0.51886734141129254 10 198 127 0.17421347599524897 2 707 1 591 36 420
6907 -0.91757868279759935 0.4684528440905561 0.72108411838084463 3 46 29 0.2812609255839657 34 2015 33 1799 32 1456
5962 -0.92771220400750387 -0.46646154641176807 0.70921991846636911 11 30 26 0.78935060307693039 2 816 1 595 36 349 35 233
5967 -0.9197344133927714 -0.48718139122568421 0.51832371597372029 9 46 24 0.29678185824982289 2 753 1 620 36 452
5984 -0.90800231300456191 -0.4885861040052647 0.42932203484626691 39 57 38 0.36178288859767743 2 841 1 698 36 587
5986 -0.91076688970299069 -0.46385944369505583 0.6078238629835786 7 67 42 0.10004123165592148 2 969 1 723 36 518 35 414
6813 -0.88243233613794925 -0.080312716714551979 0.7532015148657244 7 26 15 0.48847919431568226 34 1239 33 1090 32 933 31 958 30 1006 29 1131 28 1153 27 1258 26 1431 25 1671 24 1976 23 2224
5991 -0.9076155513394486 -0.45455722932697817 0.6502973102233951 5 221 144 0.6907658353545969 2 1046 1 779 36 539 35 421 34 365 33 373 32 393 31 577
6294 -0.96512762223731818 -0.5911275261273371 0.180572276106581 11 208 155 0.483624849131777 36 137 35 188 34 268
5992 -0.90267213156818071 -0.47912751278139132 0.45747224861131702 9 46 31 0.22669669554321983 2 948 1 789 36 650
6811 -0.89439221654762013 -0.020827148663178974 0.75743359635647478 5 185 137 0.43213603484124974 34 1245 33 1078 32 899 31 885 30 925 29 1036 28 1043 27 1114 26 1231 25 1466 24 1768 23 2006
5994 -0.89941416282708397 -0.49202131783937914 0.36000140742749931 1 39 30 0.17804729100328931 2 895 1 798 36 707
5999 -0.90208237550341286 -0.46178321353923441 0.56754781630999607 9 40 32 0.21938333096104315 2 1056 1 842 36 631
6002 -0.87914512048406657 -0.58368225870076995 -0.31143543797060291 9 213 155 0.33582427322754038 2 623 1 864 36 1097 35 1375 34 1637
6893 -0.85092685338877205 -0.47481191611830509 0.16329695809088127 6 189 135 0.33800326385259427 34 1533 33 1709 32 1821 31 2028
6007 -0.89227891638794565 -0.49511540436073798 0.31184899904484342 10 47 21 0.61847780200838176 2 953 1 895 36 810
6374 -0.89450838110586461 -0.60468701463310048 -0.34413787734516543 0 38 28 0.80762511589724362 36 909 35 1204 34 1526 33 1878
6008 -0.88981003181096319 -0.51027638260396224 0.18255166790580418 1 62 52 0.42658626746432377 2 865 1 896 36 880 35 922 34 1034 33 1231
6891 -0.9175889773487822 0.41507835893528899 0.72719337532856598 4 33 21 0.76247990134551891 34 1918 33 1690 32 1378
6021 -0.88931270728670664 -0.47408908269453992 0.40041203433638856 6 36 25 1.0290296120169997 2 1104 1 1000 36 842 35 789 34 810 33 910
6022 -0.88978333124837428 -0.46700391467915936 0.46626373629808271 11 54 40 0.36746260102227329 2 1152 1 1013 36 815
6167 -0.93069876726366818 -0.55926116054577957 0.13167798147548762 4 194 137 0.66708886499167541 1 456 36 416 35 492 34 630
6027 -0.89106761336804619 -0.44937649010096858 0.57197529371697242 10 201 148 0.38223314185166257 2 1220 1 1045 36 776 35 653 34 607 33 633 32 684
6680 -0.96375444110858555 -0.31569818318985132 0.86345820964842479 14 37 28 0.57440700527525701 34 76 33 53 32 36 31 51 30 80 29 252 28 465 27 606 26 786
6029 -0.88127822002550948 -0.48849714765684848 0.25872010636006976 1 210 141 0.31585286861121409 2 1084 1 1076 36 963 35 977 34 1066
6674 -0.99126974210511254 -0.29552484113158933 0.88950812663287249 4 161 98 0.40704193615763107 34 12 33 2 32 1 31 2
6035 -0.88647626750751563 -0.44298583104606787 0.57678921512263059 4 203 152 0.2444717350000955 2 1279 1 1115 36 847 35 708 34 655
6038 -0.88336385766723335 -0.44019191446718975 0.57669903814617307 1 65 38 0.14007533478359044 2 1315 1 1150 36 888 35 744
6247 -0.83173677443961258 -0.39121997280396392 0.57802520793895407 8 55 37 0.097544121745212917 1 1656 36 1499 35 1402
6043 -0.8657627547165454 -0.49735758132707097 0.083506634698481824 0 41 24 0.39434644024997045 2 1171 1 1202 36 1196 35 1303 34 1448
6760 -0.92108553499981194 -0.041401074911565042 0.7873626234395863 0 45 33 0.35309754235605184 34 896 33 716 32 554 31 565
6045 -0.87471236035758282 -0.4365143811081752 0.53692056848747405 9 42 27 0.34050585200705918 2 1394 1 1223 36 1003 35 877
6754 -0.98588675028196771 0.26778664582186845 0.81158650893925077 7 40 21 0.71279697425271626 34 919 33 658 32 408 31 293 30 231 29 225 28 247 27 201 26 189 25 216 24 308 23 493 22 806
6046 -0.87664586967616165 -0.42609516342454284 0.63321905688111579 1 48 29 0.48549174076444157 2 1427 1 1227 36 954 35 777
6067 -0.84532641274319109 -0.48215916432501638 0.094767933046485148 11 34 26 1.1063236252572197 2 1406 1 1392 36 1405 35 1535 34 1638 33 1866 32 1969
6070 -0.83085159569365885 -0.54416897924765528 -0.3429529680397031 10 65 44 0.65592853080732383 2 1246 1 1418 36 1625
6151 -0.94953243139108134 -0.55923658806791632 0.26581315766718988 3 197 132 0.37676386597588402 1 321 36 240 35 274 34 329 33 469
6075 -0.84964962173385483 -0.42078922852977024 0.48700257617106618 13 38 32 0.48332815189908751 2 1617 1 1452 36 1305 35 1227
6664 -0.80426013345369574 -0.51519799407333633 -0.35000544845630094 0 34 20 0.5032969627496191 35 2195 34 2478 33 2774
6077 -0.85251598932709205 -0.40350219439031354 0.62879483173266426 6 194 129 0.35742668761538676 2 1678 1 1459 36 1249 35 1080
6658 -0.78686096649972592 -0.31908814684842762 0.23589307227745138 2 204 131 0.88926453960021057 35 2268 34 2335 33 2487
6078 -0.85144436216734509 -0.40941554116993745 0.5795097674586539 5 57 33 0.94592704084625845 2 1661 1 1466 36 1273 35 1124 34 1069 33 1087 32 1116
6085 -0.8478559008178056 -0.3825173304031661 0.73256446505600303 9 205 135 0.19843988937474236 2 1803 1 1530 36 1288
6086 -0.8421712494891419 -0.41021038322117903 0.5119989465447744 5 142 111 0.28211838958180152 2 1723 1 1531 36 1393 35 1308
6231 -0.85823025468626779 -0.42856643141319706 0.48390052921667559 0 229 150 1.4205750832991053 1 1365 36 1207 35 1113 34 1116
7460 -0.8377739020326046 0.017693274870337134 0.69879921560288139 18 32 20 0.15758916984809812 32 1633 31 1581 30 1545
6091 -0.81701757953683962 -0.50299101927494516 -0.21955656150837496 4 162 111 0.1161000729045893 2 1503 1 1603 36 1741
6441 -0.95685539706093681 -0.5300257224622793 0.49524980882706071 24 211 156 0.56335565648410335 35 118 34 132 33 172 32 236
6744 -0.98763534530411423 0.25552315968591954 0.81536103675238147 0 45 30 1.3516079348362704 34 867 33 608 32 375 31 269 30 209 29 195 28 223 27 192 26 185 25 214 24 310 23 506
6093 -0.81164218806010979 -0.52470951937079313 -0.36035393897328716 6 219 165 0.73238377842593338 2 1463 1 1623 36 1795 35 2118 34 2409 33 2727
6738 -0.94290268741120264 -0.5552857704592904 0.26053664004884175 2 24 22 1.080041958142389 34 387 33 537 32 692
7459 -0.91387728555744996 0.72874389804728035 0.68952038388134185 0 49 20 0.31483397459947021 32 1866 31 1571 30 1288
6099 -0.82977492325943891 -0.39868728848618373 0.51128292444039025 2 150 105 0.30142743332634003 2 1831 1 1666 36 1541 35 1484 34 1426
6102 -0.83311251879929116 -0.36764189062466018 0.72141668870668296 16 202 141 0.30918436812331029 2 1881 1 1698 36 1465 35 1284 34 1138
6311 -0.93566900271492204 -0.52038949240346266 0.40340114036321273 10 83 67 0.50457539612083158 36 334 35 314 34 338
7476 -0.84506857513291367 0.25768680113585535 0.67828749343065586 5 210 158 0.25327484536029893 32 1917 31 1763 30 1631 29 1530
6107 -0.82284885582131517 -0.40207682819118418 0.46239178102499678 25 70 46 0.12200611825690179 2 1856 1 1739 36 1609
6457 -0.96976236695243878 -0.60865543662828847 0.1008335075484886 0 212 159 0.72028649497423913 35 196 34 296 33 482 32 676 31 1030
6824 -0.84766084903714223 -0.40686500737076231 0.57429326587682372 5 212 137 0.45189556895876642 34 1122 33 1142 32 1179
6109 -0.82274375825601465 -0.39894852505656692 0.47208235145661614 9 49 28 0.25294918543824907 2 1861 1 1745 36 1615
6818 -0.85745733215919961 -0.20052130654025302 0.74557600812774782 8 57 36 0.31772858788153557 34 1237 33 1122 32 1016 31 1093 30 1184 29 1310 28 1349 27 1538 26 1790
7475 -0.83310444279840257 0.1353233208763388 0.68095062972685794 8 215 161 0.30129435126028542 32 1862 31 1754 30 1671 29 1618
6110 -0.81768709913488036 -0.42079681500186422 0.3079529290888075 2 57 34 0.72575224812066497 2 1823 1 1753 36 1686 35 1722 34 1759 33 1897 32 1943
6117 -0.81820513273768558 -0.40232555250028301 -0.11101075676916489 5 219 149 1.0077409351308226 2 1769 36 1854
6118 -0.80043817529325068 -0.38689389840811766 0.3974610323701584 21 30 9 0.42379019549496205 2 1956 1 1820 36 1823
6263 -0.80886401798659446 -0.48122695480509681 -0.1312331564717629 2 183 134 0.74061568991067228 1 1729 36 1799 35 2038
6123 -0.79529669505607437 -0.36881292682506411 0.48696925004950681 12 28 20 0.78290305674908478 2 2066 1 1871 36 1858 35 1876
6776 -0.9377135972349302 0.09900233647503541 0.78446177568595454 0 208 143 0.38677229311513289 34 1048 33 830 32 615
6125 -0.78163062466290478 -0.43324285123531631 0.0066266524263649401 5 204 143 0.19864928872713727 2 1917 1 1884 36 2038 35 2286 34 2439
6770 -0.99635229150336657 0.40035616904159249 0.80536541268059325 0 40 28 0.23344964440724492 34 1112 33 795 32 495 31 342 30 234 29 167 28 61
6131 -0.97984434699762424 -0.53196464898985052 0.64131965960678938 6 198 136 0.45934332103490089 1 69 36 7 35 6 34 6 33 19 32 41 31 94
6134 -0.96597821587521826 -0.54739228819151453 0.47661186258791449 9 216 147 0.43642718332561248 1 208 36 76 35 71 34 97
6215 -0.88591392413934378 -0.57724372320939976 -0.23353194505159749 5 204 151 0.51423169781073108 1 782 36 995 35 1235 34 1514
6139 -0.95697986650105382 -0.53346611499538665 0.48163994454553039 5 36 21 1.092966632410632 1 303 36 157 35 119 34 133
6728 -0.98581343254602616 0.14730494585148263 0.82605859305412133 8 45 37 0.25463102820688155 34 663 33 447 32 263
6141 -0.9654833186971461 -0.61794330424083055 0.014414041781315473 7 218 164 0.83342276361679646 1 58 36 161 35 261
6722 -0.98766622069813548 0.12523936792204018 0.83067843323081525 12 26 16 0.24576046741839486 34 595 33 398 32 233 31 164
6142 -0.96604995244550973 -0.6280835362392877 -0.044510076518489865 21 217 160 0.35775111293192219 1 33 36 165 35 290 34 449
6144 -0.96096933535567775 -0.59093638493900191 0.1459262751863456 0 218 155 0.48239081352638113 1 191 36 173 35 241 34 335
6145 -0.96265551211574607 -0.63675257670121499 -0.11266855277257942 6 214 155 0.60350445061706626 1 55 36 193 35 331
7088 -0.99042959382077678 0.44113556353545719 0.79511913361692987 8 39 31 0.20782685048535754 33 934 32 613 31 436 30 312 29 256 28 163 27 118
6147 -0.9535786068141715 -0.56437428010514512 0.26087318421175459 5 172 128 0.31268104459433388 1 287 36 208 35 245 34 297
8114 -0.9544139007949084 0.22280023596495874 0.78648896939407398 20 200 143 0.10904030590470043 29 531 28 497 27 458 26 438
6149 -0.94602658751897473 -0.49642551544920094 0.63138783555299294 20 37 21 0.16829818735585741 1 426 36 213 35 136
7092 -0.9141443094536057 -0.02540825388626972 0.77736421576811621 10 190 130 0.42251741326752856 33 837 32 662 31 656 30 717
6150 -0.95208131350168368 -0.57722164622409855 0.16883408310954337 4 32 20 0.20018857310205865 1 283 36 235 35 298
7601 -0.97506038899665359 0.37459690491675118 0.78800423395845809 3 26 16 0.42108566189765184 31 495 30 412 29 401 28 346 27 243
6153 -0.94889887941355744 -0.56542970766596468 0.22622528691446878 7 31 31 0.73845697469158067 1 320 36 251 35 294
7096 -0.95613712104973947 0.26950444492170461 0.78411046835347409 3 24 15 0.51626120699930211 33 969 32 695 31 574 30 510 29 526 28 476
6154 -0.951667410040685 -0.60584607867447215 0.0027978346885161945 12 59 44 0.74518973608820316 1 251 36 261 35 363 34 544 33 785 32 1024
6155 -0.94344768457083117 -0.53738517675177688 0.36765518146959142 1 55 40 0.18234100673071527 1 388 36 272 35 272
8122 -0.94663340920560546 0.72567714008773099 0.71889707110885148 14 214 149 0.26401743036822611 29 765 28 540 27 328
6156 -0.95730792949309007 -0.66147781879486156 -0.31372871230148619 7 215 160 1.4805555295913113 1 86 36 275 35 491 34 796 33 1162 32 1460
7615 -0.96937583662811622 0.41675972215322604 0.777405992037149 0 28 12 0.36203478604966566 31 607 30 495 29 466 28 384 27 267
6157 -0.95348714419561065 -0.64546047672832862 -0.21881646303994787 1 46 42 0.8683976475307047 1 171 36 282 35 465 34 737 33 1070
7100 -0.86027604277054015 -0.39345896987078516 0.73834300344099146 5 197 133 0.29489272512229997 33 721 32 721 31 871
6158 -0.93758989367668466 -0.49038239988056875 0.62152545735718356 2 215 150 0.15229871951135668 1 486 36 288 35 192 34 160 33 178
7609 -0.99056247115981899 0.65562537799019327 0.76908333673394946 6 22 19 0.55216399962327922 31 678 30 467 29 350 28 141 27 52 26 34
6159 -0.93698237080310853 -0.47831596292355089 0.67885784827654849 4 36 25 0.49081738176409379 1 514 36 289 35 174
6161 -0.94548278394936147 -0.57291464788087532 0.15801190616225319 7 225 160 1.0425538548852158 1 333 36 296 35 341 34 451
7040 -0.93301758314304439 -0.15149296843808355 0.81273350442511194 18 18 18 1.0093626509882412 33 415 32 310 31 319 30 419 29 595 28 680 27 796
6163 -0.93924394610832918 -0.58103731912493606 0.059063172130993977 10 33 28 0.4913497457685902 1 374 36 350 35 451
8066 -0.99197896732654045 0.13696516023122643 0.8329492560079621 7 56 40 0.74520633447926343 29 105 28 173 27 212 26 227
6164 -0.93767478575677954 -0.56904763798047808 0.13250773406353417 6 222 164 0.32431356357112012 1 392 36 354 35 425
7559 -0.96461159048042422 -0.079700686649089372 0.83450375031213841 0 197 138 0.26692229467460354 31 151 30 185 29 340 28 445
6165 -0.92912088759506117 -0.50582531503514716 0.46792059342379433 0 226 156 0.022613431960174828 1 534 36 375 35 324
7044 -0.91377474253548896 -0.45617595242088982 0.66234162643318717 2 19 14 0.91357482296265557 33 307 32 332 31 482
6166 -0.9365182855756411 -0.60833469412922281 -0.10694420488248949 2 176 131 0.25550736145724562 1 351 36 399 35 566
7553 -0.99452253886814135 0.23401240429269013 0.82331275422297323 6 32 22 0.47720685055344897 31 204 30 153 29 114 28 111
6169 -0.93061725810943119 -0.57954056252369612 0.022023073098025248 11 44 29 0.26290343847393483 1 429 36 429 35 551 34 744
7048 -0.97995755414630914 0.17942769097064326 0.81689979611506736 12 37 31 0.70842271969428761 33 555 32 348 31 260 30 219 29 266 28 313 27 276 26 283 25 331 24 474
6171 -0.92280808288543803 -0.49240052621135494 0.49717173454366587 5 42 25 0.24532720804138464 1 594 36 431 35 361
8074 -0.98804572269061863 0.28959593624046071 0.81119808371730262 7 184 128 0.24084994358209819 29 212 28 218 27 178
6172 -0.93106810438144139 -0.60247801800928635 -0.10047712731487032 5 41 33 1.0109367074356199 1 404 36 440 35 627 34 842
7567 -0.98845674336858746 0.30070210783319551 0.80949452887638984 14 30 20 0.10563618281799818 31 303 30 232 29 214 28 211 27 170
6173 -0.92193437460406358 -0.55325935735073672 0.1363100134286529 2 221 162 0.16298053995050035 1 527 36 481 35 569
7052 -0.95023297930792106 0.013796321251188161 0.80855210289264035 6 207 131 0.74510589891482981 33 539 32 373 31 339
6174 -0.91287960309976501 -0.45221444961135476 0.69499272307703874 1 200 127 0.13630897915882115 1 725 36 486 35 347
7561 -0.99259824033359279 0.290143640574755 0.81675762038357946 1 27 13 0.43213066136684847 31 264 30 192 29 155 28 117
6176 -0.91200854266215858 -0.4863389621243388 0.48418864715830445 4 224 153 0.87661441142087959 1 664 36 516 35 462 34 474 33 546
6181 -0.91489242672053506 -0.53837051580433792 0.18457764228722179 2 225 162 0.21862378002327842 1 587 36 544 35 625
6996 -0.95195291247999869 -0.31759713086116825 0.85352388594405426 21 26 32 0.3576091283154848 33 84 32 66 31 82
7879 -0.95920724076379671 0.52288530777134601 0.7552986959673722 10 24 25 0.41816092836071256 30 682 29 574 28 459
6182 -0.91179021945073258 -0.48689283601983468 0.44688195653054186 8 223 156 0.18999891587211751 1 669 36 547 35 502
7505 -0.82543384355006244 0.47883163280466051 0.63525023149233839 3 230 149 0.41935439947354319 32 2480 31 2215 30 1968
7872 -0.96658109208912424 0.54216745664106669 0.76005895925398181 0 177 113 0.29398238575548313 30 623 29 523 28 402 27 244 26 154
6186 -0.90821712283084122 -0.53737702358700412 0.17791255392152466 10 37 26 1.0433671388119452 1 631 36 613 35 698
6189 -0.90109626749753058 -0.46744105697372307 0.51792392728294467 2 191 132 0.3856358603263163 1 833 36 658 35 565 34 559 33 605
7004 -0.99633590243857328 0.011564377102332733 0.85508114138542579 4 158 104 0.31764959734499154 33 174 32 101 31 70 30 58 29 34 28 103 27 222
7887 -0.93800024097337509 0.33229263625259881 0.7572368964665035 9 223 149 0.19526197143345159 30 751 29 698 28 620 27 549
6190 -0.90708460008797931 -0.53796914254533135 0.11905764980599037 3 210 153 0.33097041635902347 1 641 36 662 35 768
7513 -0.81894552979792512 0.56554530345405041 0.61782232360181633 7 221 152 0.11226196190384889 32 2675 31 2394 30 2094
7880 -0.95975111475859698 0.64276214191345327 0.74140573541520083 5 180 136 0.10599980902225187 30 769 29 608 28 453
6191 -0.90370243148846263 -0.51263317472443748 0.25535350267204421 5 168 117 0.46848447999954135 1 693 36 676 35 721 34 799
6193 -0.89616458082635164 -0.44592526230854401 0.62731503058330773 4 189 115 0.21001461976989211 1 985 36 696 35 547 34 502 33 504 32 529
7072 -0.92120877599080997 -0.079534763956271695 0.7919488185833149 15 31 30 0.46913007697779335 33 651 32 498 31 511 30 603 29 724 28 798 27 883 26 1010 25 1208
6197 -0.88933739154321778 -0.42475410999476332 0.72303920231764651 4 225 152 0.60565122353893175 1 1131 36 770 35 562 34 466
7076 -0.90615953194004695 -0.46541038136971769 0.56968649390625836 4 188 128 0.19543535712838897 33 483 32 525 31 748
7895 -0.92511642014930562 0.10465358012130571 0.77064473468529882 5 222 159 0.32581632339749206 30 704 29 764 28 740 27 764 26 808 25 925
6198 -0.89473904186778208 -0.48874189544315444 0.34875078140050508 1 204 143 0.64599417165579565 1 886 36 771 35 757 34 802 33 921 32 1035
7585 -0.9365022906722491 -0.2173786004713211 0.82402651362484014 10 61 51 0.40395668197401985 31 229 30 332 29 551 28 656 27 798 26 968 25 1230
7888 -0.91668941989481412 -0.28895465644696638 0.81356286112113463 3 203 152 0.1722976837933817 30 475 29 700 28 893
6203 -0.89126899501095147 -0.48725017120594633 0.33691741838385492 2 229 158 0.44151788378094808 1 941 36 825 35 805 34 843 33 982 32 1103
8106 -0.96224478847854578 0.21392177574471311 0.7938979265830145 9 42 23 0.80174307257628907 29 468 28 454 27 406 26 377 25 414
6204 -0.88405769320411509 -0.41687898217211122 0.74111875264602822 3 227 154 0.42693962738738289 1 1181 36 845 35 617 34 513 33 471 32 458
7599 -0.9408599122326512 -0.077507077064082219 0.81089707882732687 5 172 114 0.35171703909621682 31 328 30 400 29 552 28 616 27 705 26 806
6205 -0.89140822619830207 -0.50492334754968693 0.21588778046136381 7 172 118 0.23419966783561685 1 885 36 852 35 884
7084 -0.96845795502814003 0.27704707759977054 0.79295905887454621 2 175 116 0.1566935945381327 33 859 32 577 31 467
7903 -0.93484819731477453 0.53363161548900051 0.73027105473048726 9 56 66 0.27400509197088635 30 935 29 813 28 639
6206 -0.89546927117073616 -0.5565860104764434 -0.079882534197926069 15 224 164 0.57983703290968613 1 704 36 864 35 1041
7593 -0.99803681688495705 0.60686120227584373 0.78378116946778287 0 217 138 0.36716682721391597 31 547 30 362 29 234 28 40
7896 -0.91614404080287404 -0.12486920813710359 0.79328920076419573 9 43 45 0.37420091036462483 30 616 29 767 28 888
6208 -0.89273643904466538 -0.53438006752685974 0.043804468789654161 9 47 34 0.64891783992126728 1 790 36 873 35 983
6209 -0.88353402122580682 -0.43994023838129698 0.58771882345465676 2 219 152 0.17227713859060728 1 1148 36 881 35 727 34 672 33 695
7152 -0.95279334772840429 0.51231415265625679 0.74906672158873722 5 209 148 0.62126906882124777 33 1502 32 1141 31 905 30 731
6211 -0.88582601165153618 -0.50396309966365227 0.19315839756818684 1 214 146 0.23974227676145707 1 969 36 930 35 971
8178 -0.91643753639056225 -0.13405407772832412 0.79561652136210537 1 214 152 0.24100623649933603 29 761 28 877 27 954
6212 -0.88785060103015023 -0.55201428177389655 -0.07982289436475451 4 39 27 0.77476149937712013 1 816 36 948 35 1109 34 1342 33 1612
7671 -0.89775377882448615 -0.059725597281250396 0.76626255751179095 14 33 34 0.41286650504697181 31 803 30 863 29 977 28 987 27 1103
6213 -0.88665042613097433 -0.53765758526028606 -0.0090876332990111885 3 187 133 0.17378727853853024 1 873 36 953 35 1086
7156 -0.84181671264741886 -0.39317552994098798 0.61896288228058849 5 23 21 0.67030616271143317 33 1140 32 1169 31 1317
6214 -0.88401180770287646 -0.52598300014664479 0.039267714360473618 6 216 164 0.33411382644234405 1 947 36 976 35 1089 34 1265 33 1518
7665 -0.93877408245610572 0.42244534115764587 0.74752654300364219 6 44 37 0.4339302368566893 31 961 30 813 29 720 28 611 27 497 26 412
6217 -0.87438086676697324 -0.43804005256305573 0.53122256276075497 3 175 120 0.36242865751403458 1 1225 36 1009 35 880
7160 -0.89293668181172781 -0.49767528469903405 0.28194505809020598 11 190 127 0.27552535953751994 33 1046 32 1186 31 1430
6218 -0.88544102807942826 -0.596791443160127 -0.34284866457882374 10 33 23 0.32351448367727376 1 741 36 1023 35 1316 34 1610 33 1964
6219 -0.88002796262204164 -0.53075007396218776 -0.015122937584669698 2 198 146 0.79330640413623765 1 987 36 1035 35 1183 34 1370 33 1624
8186 -0.91200879100721144 -0.28837677220908059 0.81126626084226172 13 52 44 0.28664093986094208 29 755 28 932 27 1066 26 1274
6220 -0.87004812691190825 -0.41857224300791807 0.62998554407243801 5 191 130 0.59806694970441943 1 1285 36 1042 35 872
7679 -0.92054761289184595 0.34156555517488874 0.73921284351417516 7 72 45 0.21844793394949238 31 1063 30 934 29 882 28 771 27 708
6221 -0.87569732989983062 -0.52730109815802528 -0.0091723975840345348 3 210 158 0.44714078660085138 1 1058 36 1091 35 1223 34 1406
7164 -0.98238810865591575 0.74898302586177057 0.74548129517846229 14 209 143 0.97680182569865881 33 1609 32 1200 31 900
6222 -0.87846482466078291 -0.58604995055919007 -0.31832349409290689 0 39 28 0.44921968680786195 1 872 36 1104 35 1387
7673 -0.92874752426799367 0.3821543969808201 0.74181353614472234 4 191 120 0.55035742094603823 31 1029 30 884 29 820 28 693 27 616
6223 -0.87695915128928681 -0.57458754547818947 -0.26125787161145486 3 175 127 0.46272664186996026 1 920 36 1113 35 1369
6225 -0.87433481278738179 -0.56740517847460059 -0.25122683942268148 7 175 129 0.34337634973681341 1 980 36 1143 35 1409 34 1635
7104 -0.86446311975159607 -0.29133021701563222 0.76727054127726302 5 217 148 0.90814215184959801 33 826 32 770 31 870 30 1039
7462 -0.86245881421867554 0.28136222725219467 0.69076213962321653 2 24 21 0.61191936553206261 32 1771 31 1613 30 1467 29 1385 28 1303 27 1284 26 1311 25 1419 24 1601 23 1803
6227 -0.86081634133378637 -0.41982776789325815 0.56077493179827109 49 75 59 0.3083423967044247 1 1367 36 1166 35 1036 34 972 33 1012 32 1037
8130 -0.94366351404357018 0.34148725099487715 0.76094012040484127 5 42 28 0.52452667126523889 29 662 28 580 27 488
6228 -0.86663477727777449 -0.49228228923905226 0.13615482692786149 2 220 163 0.55199401620291155 1 1199 36 1170 35 1243 34 1373 33 1573
6949 -0.83294294506713151 0.26105455078089362 0.66640456933838632 4 210 135 0.27282988530334185 34 2467 33 2315 32 2069 31 1908
7623 -0.924119153247278 -0.12296382433697657 0.8000146643954531 3 224 156 0.42846825374300579 31 433 30 534 29 681 28 760 27 871
6229 -0.85710553712246451 -0.38959795669978847 0.74388295508901037 48 32 9 0.32510827074278947 1 1443 36 1178 35 948
7108 -0.93364441633817907 0.1886819242371314 0.77088029619367526 6 29 23 1.1962699356698669 33 1065 32 820 31 710 30 674
6233 -0.85731168071549346 -0.43515035112012257 0.4426701637410142 32 197 131 0.33322761795582823 1 1373 36 1226 35 1154
7112 -0.91730578881732472 0.092958186982972646 0.76231833867324283 4 25 17 1.273235836052367 33 1049 32 842 31 787
7470 -0.84931062951420699 0.25762457079754025 0.68259493067582677 5 34 12 0.34686150616223932 32 1865 31 1710 30 1585 29 1497 28 1382 27 1411 26 1492 25 1602 24 1818 23 1968
6236 -0.85264333044776497 -0.40661611259604097 0.60792723214928235 11 63 35 0.071232471531998867 1 1450 36 1252 35 1096
6957 -0.80075682126194547 0.13923957869855855 0.65084861620005219 30 30 12 0.35900965046208633 34 2569 33 2469 32 2257 31 2131
7631 -0.91280879157679451 -0.22256029738166463 0.80187282252648551 6 48 35 0.40235073661779835 31 429 30 578 29 770 28 925 27 1029
6238 -0.85707187107585892 -0.5405262993078952 -0.2041169094284471 5 32 28 0.64024367188811837 1 1212 36 1332 35 1583 34 1789
7625 -0.92495824311944208 -0.10236358393560845 0.79818179854834825 5 54 38 0.40011505751375465 31 448 30 546 29 680 28 751 27 851 26 987 25 1201 24 1551
6240 -0.84453308181044784 -0.40274482834663827 0.57821866315583659 6 52 32 0.88102590609960407 1 1528 36 1351 35 1219
6241 -0.85529859670669128 -0.54467002497617445 -0.24837558272635765 7 38 34 0.65220123948113895 1 1222 36 1361 35 1627 34 1851 33 2173
7056 -0.97233499466140316 0.1620158511801966 0.81195432131658718 2 53 35 0.64251712674863026 33 590 32 384 31 302 30 279
6243 -0.83767118806620777 -0.40831108253365256 0.50140268181690983 5 181 119 0.31191599187983338 1 1569 36 1438 35 1373 34 1338 33 1389
8082 -0.98318714407261987 0.61843217593463617 0.76535840539862432 7 218 149 0.55679960608976442 29 411 28 268 27 110 26 62
6244 -0.83492061650723182 -0.3733964636389549 0.69511566940851299 0 227 154 0.14939542536403813 1 1672 36 1448 35 1278
7575 -0.94718750998562684 -0.15409988021122523 0.82720986879946035 1 28 19 0.60656423330326392 31 207 30 280 29 472 28 571
6245 -0.8440502124510646 -0.49897451906767476 -0.049035105018265031 4 40 24 0.37343630939473105 1 1387 36 1453 35 1638 34 1796
7060 -0.997836806279083 0.34857014422357746 0.81329746095976541 0 32 25 0.71308903144637337 33 690 32 419 31 279 30 189 29 122 28 55 27 104 26 105 25 121 24 172
6246 -0.83514438745302111 -0.43018699873549526 0.34214646855730896 13 222 162 0.77425344262792706 1 1550 36 1496 35 1520 34 1540 33 1641
7569 -0.95700665513293137 -0.080586712954830636 0.82743412269405514 6 191 123 0.34282530061611832 31 199 30 246 29 413 28 492 27 555
6249 -0.84174668087555804 -0.52747570336757799 -0.22169318045029421 4 35 28 0.44548746570868886 1 1364 36 1514 35 1749
7064 -0.98900780529766719 0.31660106668187404 0.80824983401391803 5 45 10 0.48413197043151457 33 706 32 447 31 318 30 242 29 215 28 190
6250 -0.83086611168232294 -0.37621254263111403 0.65085936602558703 4 60 43 0.30429165917635564 1 1703 36 1516 35 1368 34 1255
6251 -0.83104560697824004 -0.39504768390621015 0.53858906341577706 5 219 167 0.077587538979640894 1 1658 36 1524 35 1442
8090 -0.98198480203962746 0.030317524711329338 0.83771667674970873 5 45 39 0.42812614777474134 29 174 28 299 27 324 26 355 25 456 24 685
6252 -0.83252259373385484 -0.43295441357831244 0.32873382461705386 7 43 33 0.42329789012479424 1 1571 36 1526 35 1547 34 1572
7583 -0.99885185216307304 0.56882627692353216 0.78759717279308306 0 46 47 0.22138020914022624 31 494 30 328 29 204 28 30 27 33
6253 -0.83464259053933287 -0.4571434292039861 0.17748911900955416 0 228 169 0.85641170837419522 1 1523 36 1531 35 1611 34 1677
7068 -0.98967323591975642 0.33430004191050933 0.80858785606425421 2 37 15 1.0923941821847785 33 739 32 465 31 333 30 245 29 203 28 176 27 155 26 143 25 160 24 226
6254 -0.82920985927735369 -0.40239254057355384 0.48400013686092597 13 69 44 0.46196452306342595 1 1663 36 1550 35 1509
7577 -0.97241515655083599 0.17327337108507182 0.80902932107255066 4 205 149 0.17863646049136497 31 311 30 291 29 357
6255 -0.82777756787571666 -0.3862096587718381 0.57731196533367624 3 210 156 0.21845370539137196 1 1715 36 1559 35 1470
6257 -0.8375144499947379 -0.54503299705828123 -0.33738701579256419 20 223 170 1.2538308373858802 1 1368 36 1573 35 1840 34 2109 33 2463 32 2676
7136 -0.89784026125158589 0.069571510437989662 0.75103860796568755 11 32 27 0.29484326902058472 33 1219 32 1006 31 971
6259 -0.82157265015264325 -0.48228452493252222 -0.040283159766787417 6 37 30 0.44549290452440599 1 1591 36 1683 35 1855
8162 -0.91844763018966247 0.69084747111670963 0.69593305170173825 0 192 118 0.19224908851423661 29 1040 28 782 27 570
6260 -0.81133474748924539 -0.47048299979082026 -0.059661721430764571 7 223 176 0.78611703378841358 1 1725 36 1777 35 1978 34 2163 33 2425
7655 -0.9166829648033723 0.072194479077307722 0.7690123502002274 0 228 146 0.45012190091626292 31 756 30 768 29 830 28 859
6261 -0.80832305489431211 -0.44473217458044534 0.092847579002135125 5 214 152 0.31866948594709144 1 1790 36 1783 35 1933
7140 -0.83603505971655778 -0.32174804455545797 0.74261424487930661 26 30 26 0.45359237763505977 33 1113 32 1054 31 1188 30 1307 29 1452 28 1524 27 1786 26 2146 25 2503
6262 -0.80849095298722096 -0.45120034118656871 0.057888064792202994 4 58 39 0.70778896894087329 1 1781 36 1784 35 1942 34 2098 33 2308 32 2450
7649 -0.91335320026355449 -0.0093882849224113333 0.77509847730328563 17 37 29 0.47978731463510732 31 686 30 734 29 837 28 916 27 924 26 1024 25 1205
6265 -0.7878369691178615 -0.40788516308533956 0.20435961906933775 19 36 24 0.28782810939592962 1 1869 36 1947 35 2099
7144 -0.92679259766466826 -0.55581827034359221 0.13171224806142645 5 22 16 0.44429216318995773 33 885 32 1071 31 1364
6267 -0.78124097692950389 -0.43288569092076556 0.00066080618391118479 0 36 26 0.99395564907971945 1 1897 36 2048 35 2291 34 2447 33 2689
8170 -0.91460634530286822 0.65783232256897517 0.69748522222201292 4 209 140 0.31417839178606127 29 1061 28 837 27 625 26 441
6268 -0.78077176848907293 -0.44830423226879607 -0.090023845153473114 4 165 121 0.28186006083525855 1 1864 36 2064 35 2332
7663 -0.9580369758273608 0.68196938779776239 0.73946985355173778 5 28 18 0.55726975884560725 31 1067 30 810 29 631 28 455 27 250
6269 -0.77651392309675749 -0.45579534415605583 -0.16842456707457262 0 193 133 0.21084493320336409 1 1895 36 2130 35 2426
7148 -0.93540537104044674 0.36604817927202021 0.74026669481292273 0 31 16 0.71294682990628078 33 1418 32 1118 31 942
6270 -0.77609657108628427 -0.44630157369241652 -0.11826039564880625 8 36 24 0.41442961713572318 1 1922 36 2131 35 2399
7657 -0.89440546952629429 -0.20734651278130917 0.77979168699180901 2 212 150 0.34805201591670948 31 643 30 782 29 959
6272 -0.77251155283800477 -0.030965904278807126 -0.12405294589960855 1 185 132 0.95399429628651566 1 2788 36 2844 35 2919
6929 -0.84015890930322357 0.15409035085728842 0.68376287547860559 1 28 19 1.5084280759479571 34 2179 33 2056 32 1828 31 1699 30 1617 29 1559 28 1478 27 1559 26 1689
6273 0.18988221883764034 0.090389083986359572 0.59187991500502457 3 130 82 0.5167354703846051 1 3095 36 3152 35 3170 34 3170
7446 -0.85290918209198474 0.013858364445572084 0.71441575549326808 1 50 27 1.4241612016838048 32 1462 31 1408 30 1372 29 1386 28 1365 27 1478 26 1667 25 1883 24 2158 23 2364
6274 -0.98561378467111538 -0.52244686643423133 0.73422079683580321 13 164 108 0.41029651488457902 36 0 35 0 34 0
7955 -0.89314531985281165 0.49527807199660734 0.69374967716028779 0 196 141 0.48228798555796948 30 1326 29 1203 28 1018 27 894
6276 -0.98028540215035043 -0.54618280530413799 0.55313363439560292 2 191 138 0.35279429070570895 36 9 35 16 34 17 33 54 32 86 31 170
6933 -0.81836326378227631 0.044732516155615305 0.67862196310412559 11 173 113 0.4596943396457096 34 2206 33 2095 32 1895 31 1818 30 1743
6277 -0.97272545252315223 -0.52824936837984271 0.61995347100790055 17 43 30 0.65453217468547231 36 39 35 24 34 18 33 44 32 70
6279 -0.97837039000918979 -0.55578443295667634 0.47002510511928414 6 207 131 0.16164369780790813 36 21 35 42 34 52
7444 -0.82308992747966325 -0.27065667536659882 0.72411253035442913 10 53 27 0.41641105077010565 32 1330 31 1389 30 1473 29 1581 28 1697
6280 -0.97223075400520298 -0.5451411095771751 0.50235251689226412 0 213 149 0.27824234732188985 36 46 35 45 34 57
6281 -0.96196402199084396 -0.51469210342293803 0.64211273186291695 1 39 20 1.4270270487156957 36 86 35 47 34 45 33 68 32 94
7454 -0.86041264237852055 0.14172318667751527 0.70636406397322293 7 179 112 0.2885896139578023 32 1580 31 1472 30 1394 29 1366 28 1319
6282 -0.96075917196821092 -0.51356233493870562 0.62855234090001832 1 173 124 0.13526988021293726 36 108 35 57 34 53 33 79 32 102
7963 -0.87630984520429656 0.26264332584646705 0.70670229186143341 4 37 31 0.31469232327760377 30 1322 29 1279 28 1199
6284 -0.97467412004275722 -0.59049433143048902 0.23617263272327776 5 213 162 0.34221088170812919 36 66 35 108 34 172 33 282 32 431
6941 -0.92742613018619291 0.74716927335079297 0.68759516479957039 0 200 135 0.93739974529719727 34 2423 33 2178 32 1787
6287 -0.97218279031591581 -0.60438343040390652 0.14265288601374304 3 220 159 0.6042884348756381 36 92 35 157 34 242 33 419
7452 -0.89163950373018985 0.41609230667950675 0.70098129462894077 9 45 26 0.35577361322233619 32 1656 31 1458 30 1290
6288 -0.93399851081274843 -0.46767383497588338 0.74150174462458673 9 43 29 0.23510050340749333 36 303 35 164 34 117
7009 -0.93639274686857954 -0.31945886120361283 0.83712147439047102 5 59 48 0.47171847102065578 33 150 32 121 31 147 30 265 29 521 28 660 27 844
6289 -0.96420591745981421 -0.57866945212505772 0.23994496994656742 6 198 132 0.45812799555957584 36 135 35 169 34 224 33 375 32 514
7526 -0.80586714700647855 -0.45792742509819817 -0.00057351371260470907 10 194 136 0.59490196419842056 32 2547 31 2712
6290 -0.96897543398851471 -0.59911445945514374 0.15867038677876935 1 52 35 0.41646068290641419 36 110 35 170 34 252
8035 -0.79455131699356285 0.14832200566417644 0.60449744420765128 4 216 150 0.47063080244334637 30 2135 29 2033 28 1944
6291 -0.96655506341886288 -0.58695079005779893 0.18990578070705424 5 37 25 0.44227151496777495 36 128 35 177 34 253
6292 -0.96428219559274153 -0.58165558621261038 0.21777468160837374 5 216 152 0.43735454507491967 36 140 35 180 34 247 33 401
7013 -0.98532154398870486 0.010277413346662769 0.84352365140212937 39 52 45 0.22616490283772581 33 231 32 139 31 109 30 103
6295 -0.96280492331075873 -0.5827608604728155 0.21290522945969678 19 36 32 0.46421774811840483 36 145 35 191 34 259 33 417 32 564
7524 -0.81550197251892076 0.71882443125318685 0.59725338985149468 11 192 125 0.14987038700379748 32 2809 31 2605 30 2252 29 1936 28 1762 27 1568
6296 -0.96841648942964254 -0.59989064644648271 0.13017891342535412 2 29 17 0.34974215784549328 36 119 35 194 34 284 33 467
7017 -0.94635387488301115 -0.49652731895802432 0.63599039230310273 4 21 27 0.74370196767387198 33 121 32 154 31 271
6297 -0.95319747975607405 -0.54617432449296177 0.36316092734609778 5 49 41 0.24576639239849918 36 198 35 200 34 219
7534 -0.99392893668739846 -0.22986531536783517 0.88307834155093679 3 196 136 0.35983028081102442 31 13 30 14 29 16 28 174
6298 -0.96826677092888425 -0.60149525043863361 0.12013845077082255 2 31 25 0.54201919248721975 36 122 35 201 34 294
8043 -0.99779926126329477 0.67753886942543151 0.77682459544362259 10 36 25 0.22730519643128139 29 271 28 24 27 12 26 10
6300 -0.96639226920846699 -0.60467331295004711 0.10453339519247917 15 204 143 0.15965496615591132 36 138 35 220 34 318
7021 -0.9403249405170987 -0.20956141187051217 0.82755893282856807 0 189 137 0.24315378696845635 33 240 32 194 31 206 30 302
6302 -0.96910048645924762 -0.61573631163231279 0.047709123129623485 15 219 154 0.80545797188893387 36 127 35 231 34 343 33 557 32 776 31 1123
6303 -0.9584390301688821 -0.58107078114949573 0.2014731497868156 2 220 164 0.2901085234105909 36 179 35 234 34 305
7532 -0.99592041128418873 -0.2127512275698665 0.88196287010466345 13 26 16 0.15635903810252924 31 16 30 10 29 10
6304 -0.96635037027202109 -0.60866620546658423 0.075785522903097619 4 209 156 0.49530208925521796 36 141 35 236 34 341 33 547
6961 -0.87458742908883014 0.65696620725826482 0.65738938506032352 9 196 127 0.68181148117286439 34 2728 33 2556 32 2192 31 1910 30 1620 29 1396 28 1204 27 1006
6305 -0.96719373263975261 -0.62274804628914404 -0.0093079300942257998 25 210 161 1.2966261035711799 36 154 35 264 34 413 33 644 32 890
7120 -0.85711313511365284 -0.27039077335838996 0.7547332435158518 17 199 129 0.42289175509610533 33 977 32 898 31 1000
7478 -0.85736335227251881 0.3771410157629711 0.67586120975297814 21 147 99 0.062618499167262628 32 1963 31 1767 30 1590
6308 -0.9539809110824603 -0.58334032214369724 0.15572120762772096 16 72 50 0.49809298675354952 36 216 35 287 34 384 33 560
6965 -0.81588240129112943 -0.50696961016698838 -0.23850682034807044 16 181 142 0.66254860290426898 34 2271 33 2591 32 2729
7639 -0.9797420332890201 0.77214867040009805 0.74574500214808759 5 219 139 1.5494905490377608 31 925 30 657 29 482 28 292 27 84 26 33
6309 -0.96221761426654462 -0.61778042836124636 -0.0028174186147433486 4 33 20 0.47996220735576572 36 181 35 299 34 442
7124 -0.99861365022172333 0.70526703569002802 0.77180665223845646 14 176 107 0.72746474555905438 33 1364 32 937 31 655 30 434 29 282 28 20 27 11 26 6
6313 -0.95352920549395426 -0.60261709356466253 0.036269771543091682 2 33 27 0.73867349224400447 36 243 35 334 34 488 33 711
7128 -0.98988476358537025 0.66288085173580114 0.76927301422142047 1 208 140 1.0044936607102362 33 1375 32 952 31 693 30 480 29 362 28 155 27 53 26 32
7486 -0.81794226072297038 0.1108846749864105 0.6695185558050567 4 197 129 0.51880461639228193 32 2011 31 1903 30 1791 29 1764 28 1759 27 1788 26 1964 25 2153 24 2359
6314 -0.95531297531526582 -0.61156251032859421 -3.0171142980060794e-05 6 216 167 0.37198777540703842 36 231 35 337 34 515
7995 -0.83797770415161865 0.11780328288847601 0.68746817625685142 0 30 20 0.56058717741784081 30 1609 29 1564 28 1497
6316 -0.93099678634247163 -0.51851526389925906 0.39291694646684378 6 32 24 0.39972576877895794 36 371 35 345 34 388 33 477 32 580 31 847
6973 -0.84189819536602661 0.61937298192342016 0.62975005110695692 5 195 133 1.2970018895547488 34 2864 33 2784 32 2500
7647 -0.96670498025878637 0.65266495257120893 0.74662078992811476 0 41 23 0.32023629656371527 31 932 30 706 29 556 28 398 27 199 26 115
6319 -0.945520447324533 -0.5948642035975088 0.035061131129264553 19 52 41 0.46318852598940519 36 307 35 400 34 570 33 806
7484 -0.83819013803206077 0.29461474074374716 0.66798555158999529 5 26 14 0.68136130655964378 32 2066 31 1883 30 1720
6320 -0.94597365226327745 -0.59503299099535667 0.01341233314903793 4 221 186 1.0564062844685556 36 308 35 415 34 593
6913 -0.96117721497009589 0.75651921381599219 0.7309208934749114 0 43 30 0.29274735680786451 34 2124 33 1840 32 1428
6321 -0.95151088387510974 -0.62502930994031691 -0.11180573284202955 3 25 21 0.27963375264503765 36 279 35 431 34 648
7430 -0.89144919162606917 0.2343090272713895 0.72406888152366033 23 51 25 0.48136045822059748 32 1384 31 1241 30 1160 29 1137 28 1061 27 1031 26 1041 25 1113
6322 -0.95326177708301918 -0.63145035560671381 -0.14375189278794984 9 29 22 0.50843981582267361 36 269 35 434 34 664
7939 -0.8941177579905949 0.2708229564793439 0.72266566822861567 5 30 24 0.37717919118127446 30 1163 29 1125 28 1009
6323 -0.90149710781012615 -0.43963309131181527 0.72193900362575159 14 37 27 0.12403468699888853 36 602 35 435 34 349
6324 -0.92368906856798494 -0.5227070200731484 0.32908978758559715 8 224 170 0.59185261056714278 36 437 35 446 34 522
6917 -0.82044063316897631 -0.046240060240205008 0.69334157454902445 2 193 126 0.10274345795834183 34 1988 33 1901 32 1734
6327 -0.93931110309051624 -0.59466218301805285 0.0027026997273822337 6 28 16 1.0636570764354343 36 359 35 471 34 661 33 915 32 1155 31 1466
7428 -0.89751833238511702 0.24120485050326676 0.72919234510332398 7 204 148 0.40028886520672358 32 1325 31 1196 30 1090 29 1091
6328 -0.93863668803036471 -0.58576813737064037 0.023273354685644163 1 36 21 0.50019938169163281 36 364 35 475 34 660 33 906
6921 -0.82533734318522967 0.0032100299154446763 0.69068720563432773 0 26 19 0.49092792810128599 34 2037 33 1931 32 1754 31 1682 30 1656 29 1661 28 1638 27 1766 26 1973
6329 -0.93026599470497828 -0.55919329728115363 0.14872995035059963 10 27 25 0.47889914291556279 36 414 35 479 34 613 33 815 32 1001
7438 -0.88709142224520843 0.27226219562540732 0.71476968476691638 0 186 119 0.27653068660387953 32 1482 31 1336 30 1225
6330 -0.92272836205850073 -0.5337533932509646 0.26245386027393347 2 34 18 0.90793922688242645 36 460 35 488 34 576
7947 -0.87951801276675456 -0.059500907360217577 0.74486517457278001 3 37 24 1.0434724518364122 30 1055 29 1156 28 1194 27 1277 26 1458 25 1678
6332 -0.89238878190925497 -0.43126369034563877 0.71312446747469005 12 210 151 0.38883599476261715 36 718 35 528 34 448
6925 -0.86865147560934797 0.26630599033654689 0.69757876075370406 0 27 14 0.67468279711380552 34 2120 33 1948 32 1681 31 1543 30 1397 29 1346
6334 -0.92905998660404732 -0.57925129782927132 0.029649636008047729 4 38 28 0.99541716305349703 36 438 35 561 34 749 33 993 32 1213 31 1516
6335 -0.90934324414621848 -0.50165176219104646 0.36185047706560847 3 98 66 0.69059491046359567 36 580 35 567 34 624 33 732 32 874
7436 -0.89417750795847295 0.32283615359692885 0.71465955948931459 20 31 21 0.66524647357656475 32 1489 31 1319 30 1194
6336 -0.92358791415577546 -0.56046006782992741 0.10050175617141735 6 219 161 0.65276254408331291 36 473 35 573 34 738 33 954
6993 -0.97989685603977228 -0.19872559178895138 0.86503018113814278 5 183 126 0.85605222193928843 33 75 32 45 31 47 30 57 29 107 28 332
7718 -0.84814966663806091 -0.211728132298936 0.73961570446278491 11 203 150 0.20267666601596965 31 1189 30 1261 29 1378
6338 -0.90725110756394522 -0.50289658659931569 0.34524508632454554 2 227 164 0.46341191835102785 36 611 35 602 34 666
8019 -0.81727441362468212 0.09991054239182777 0.67212894452283722 20 174 113 0.13119980568994685 30 1789 29 1763 28 1764
6340 -0.89954224841671571 -0.47803138363532488 0.43998022199512093 0 190 142 0.50439537290320358 36 690 35 642 34 652
6997 -0.94939539729274081 -0.48348102219441141 0.73744963196608371 6 36 31 0.67703140175689269 33 63 32 75 31 130
6341 -0.93483329932771175 -0.62480598897709194 -0.20821139092711924 15 212 161 0.61818030240487298 36 428 35 655 34 917 33 1258 32 1528
6343 -0.88672633670547885 -0.44041647480851587 0.59942247895443135 4 204 132 0.34139860619000922 36 834 35 689 34 627
7508 -0.83894932980952175 0.64458058058513601 0.62784338223841618 0 38 22 0.54129754412441411 32 2559 31 2254 30 1943 29 1732 28 1471
7717 -0.91483593827955767 0.6795097857811786 0.69418376669288262 7 209 132 0.26424046285810021 31 1512 30 1244 29 1073 28 840 27 614 26 417 25 314
6344 -0.91128187382542414 -0.53863312598858704 0.15119377812321003 3 218 168 0.54056742674550973 36 599 35 694 34 820 33 1023 32 1206 31 1482
